ply
format ascii 1.0
element vertex 1736
property float x
property float y
property float z
property uchar red
property uchar green
property uchar blue
end_header
0.458 -1.18 0.11 127 112 90
0.458 -1.14 0.11 127 127 120
0.463 -1.13 0.105 118 110 70
0.458 -1.13 0.11 127 127 127
0.463 -1.12 0.11 118 110 62
0.473 -1.23 0.105 127 127 106
0.473 -1.22 0.11 127 124 106
0.468 -1.22 0.11 127 127 106
0.468 -1.21 0.11 122 127 110
0.468 -1.2 0.11 127 114 94
0.473 -1.12 0.11 127 122 62
0.483 -1.23 0.11 96 54 54
0.478 -1.23 0.11 127 124 102
0.483 -1.12 0.105 127 127 96
0.478 -1.12 0.11 127 110 88
0.483 -1.11 0.11 127 127 88
0.488 -1.23 0.11 96 68 58
0.493 -1.22 0.11 126 72 58
0.488 -1.11 0.11 127 127 127
0.493 -1.1 0.11 127 127 127
0.498 -1.22 0.11 126 96 78
0.503 -1.21 0.11 127 84 78
0.503 -1.1 0.11 127 96 80
0.508 -1.21 0.11 127 106 52
0.513 -1.2 0.11 127 94 52
0.513 -1.2 0.105 127 127 127
0.513 -1.19 0.105 127 127 127
0.513 -1.18 0.105 127 127 127
0.513 -1.11 0.11 127 127 122
0.508 -1.11 0.11 127 118 80
0.518 -1.2 0.11 127 94 66
0.518 -1.19 0.11 127 127 127
0.518 -1.18 0.11 127 127 127
0.518 -1.17 0.11 88 64 42
0.518 -1.16 0.11 127 58 34
0.523 -1.15 0.11 120 64 34
0.523 -1.12 0.11 127 86 86
0.518 -1.12 0.11 127 127 122
0.528 -1.15 0.11 120 48 14
0.528 -1.14 0.11 90 74 54
0.528 -1.13 0.11 127 74 54
0.234 -1.64 0.115 127 100 76
0.234 -1.63 0.115 127 127 118
0.234 -1.62 0.115 127 100 90
0.229 -1.61 0.12 96 76 72
0.234 -1.61 0.12 127 86 72
0.229 -1.6 0.12 112 127 127
0.229 -1.59 0.12 127 127 124
0.229 -1.58 0.12 127 127 124
0.234 -1.57 0.115 127 127 127
0.229 -1.57 0.12 127 127 86
0.234 -1.56 0.12 127 127 122
0.244 -1.64 0.12 70 84 76
0.239 -1.64 0.12 127 100 76
0.239 -1.63 0.12 127 127 118
0.239 -1.62 0.12 127 100 90
0.239 -1.56 0.12 127 127 112
0.244 -1.55 0.12 127 127 112
0.254 -1.64 0.115 68 58 58
0.249 -1.64 0.12 70 58 58
0.254 -1.63 0.12 54 48 58
0.254 -1.55 0.12 127 127 127
0.264 -1.63 0.115 56 46 44
0.259 -1.63 0.12 54 46 44
0.264 -1.62 0.12 54 46 44
0.259 -1.55 0.12 127 127 127
0.264 -1.54 0.12 127 127 90
0.274 -1.62 0.12 54 46 38
0.269 -1.54 0.12 127 127 90
0.274 -1.53 0.12 127 127 100
0.279 -1.62 0.12 52 40 38
0.279 -1.61 0.12 52 40 38
0.284 -1.61 0.115 60 46 46
0.284 -1.6 0.12 52 46 46
0.284 -1.53 0.12 92 74 60
0.294 -1.61 0.115 66 50 46
0.289 -1.6 0.12 62 46 46
0.294 -1.6 0.115 66 56 22
0.294 -1.59 0.12 66 56 22
0.294 -1.54 0.12 127 104 92
0.289 -1.54 0.12 127 86 60
0.299 -1.59 0.12 120 64 22
0.299 -1.58 0.12 127 127 106
0.299 -1.57 0.12 127 127 127
0.299 -1.56 0.12 127 127 98
0.299 -1.55 0.12 127 127 98
0.453 -1.17 0.12 127 100 90
0.448 -1.17 0.12 127 127 120
0.453 -1.16 0.115 104 92 48
0.453 -1.16 0.12 127 127 120
0.453 -1.15 0.115 106 92 48
0.463 -1.19 0.12 127 110 94
0.458 -1.19 0.12 127 98 74
0.458 -1.18 0.12 127 106 74
0.458 -1.16 0.12 127 127 122
0.458 -1.15 0.12 127 127 122
0.458 -1.14 0.12 127 127 112
0.458 -1.13 0.12 127 127 127
0.463 -1.12 0.12 118 110 62
0.473 -1.22 0.115 127 127 106
0.468 -1.21 0.12 127 120 94
0.473 -1.21 0.12 127 127 106
0.468 -1.2 0.12 127 114 94
0.473 -1.12 0.12 127 122 62
0.483 -1.23 0.115 96 54 44
0.483 -1.22 0.12 127 127 102
0.478 -1.22 0.12 127 124 106
0.478 -1.12 0.12 127 126 88
0.483 -1.11 0.12 127 127 88
0.493 -1.22 0.12 127 110 88
0.488 -1.11 0.12 127 127 127
0.493 -1.1 0.12 127 127 126
0.503 -1.22 0.12 116 92 64
0.503 -1.22 0.115 127 84 64
0.503 -1.1 0.12 127 110 84
0.508 -1.22 0.12 120 80 64
0.513 -1.21 0.115 127 92 76
0.513 -1.21 0.12 120 92 76
0.513 -1.11 0.12 127 127 110
0.508 -1.11 0.12 127 127 84
0.518 -1.21 0.12 127 74 76
0.518 -1.2 0.12 82 70 88
0.518 -1.19 0.12 82 64 48
0.518 -1.18 0.12 80 60 50
0.518 -1.17 0.12 88 64 50
0.518 -1.16 0.12 106 68 64
0.518 -1.15 0.12 127 106 52
0.523 -1.15 0.115 120 102 42
0.523 -1.14 0.12 120 102 42
0.523 -1.12 0.12 127 112 100
0.518 -1.12 0.12 127 127 110
0.528 -1.14 0.12 118 66 42
0.528 -1.13 0.12 127 74 62
0.234 -1.61 0.125 127 86 76
0.234 -1.6 0.125 112 127 127
0.234 -1.59 0.125 96 76 72
0.229 -1.58 0.13 96 58 52
0.234 -1.58 0.13 96 58 52
0.229 -1.57 0.13 127 127 112
0.234 -1.56 0.13 127 127 122
0.244 -1.64 0.125 70 84 122
0.244 -1.63 0.125 127 100 76
0.239 -1.62 0.13 127 104 76
0.244 -1.62 0.13 127 100 76
0.239 -1.61 0.13 112 127 116
0.239 -1.6 0.13 112 127 127
0.239 -1.59 0.13 96 76 72
0.239 -1.56 0.13 127 127 112
0.244 -1.55 0.13 127 127 116
0.254 -1.63 0.125 54 48 58
0.254 -1.62 0.13 54 48 28
0.254 -1.55 0.125 127 127 127
0.249 -1.55 0.13 127 127 88
0.254 -1.54 0.13 127 127 88
0.264 -1.62 0.125 54 38 44
0.259 -1.62 0.13 54 46 46
0.264 -1.61 0.13 54 38 46
0.264 -1.54 0.125 127 127 102
0.259 -1.54 0.13 127 127 102
0.264 -1.53 0.13 127 127 102
0.274 -1.62 0.125 54 42 32
0.274 -1.61 0.13 54 42 32
0.274 -1.53 0.13 124 112 70
0.279 -1.61 0.13 52 40 32
0.284 -1.6 0.13 52 48 32
0.284 -1.54 0.125 92 74 66
0.284 -1.54 0.13 127 96 66
0.279 -1.54 0.13 98 70 66
0.289 -1.6 0.13 62 46 32
0.294 -1.59 0.13 62 52 24
0.294 -1.56 0.125 127 127 98
0.294 -1.56 0.13 127 127 120
0.289 -1.56 0.13 127 127 120
0.294 -1.55 0.125 127 127 96
0.289 -1.55 0.13 127 127 96
0.299 -1.59 0.13 110 58 24
0.299 -1.58 0.13 127 127 114
0.299 -1.57 0.13 127 127 124
0.453 -1.19 0.125 116 106 74
0.448 -1.19 0.13 116 108 82
0.453 -1.19 0.13 127 92 82
0.453 -1.18 0.125 127 106 74
0.448 -1.18 0.13 127 127 94
0.448 -1.17 0.13 127 127 100
0.453 -1.16 0.13 118 90 54
0.463 -1.19 0.13 127 110 94
0.458 -1.16 0.13 127 127 122
0.458 -1.15 0.13 127 127 114
0.463 -1.14 0.125 118 106 80
0.463 -1.14 0.13 118 106 80
0.463 -1.13 0.125 118 110 62
0.473 -1.21 0.13 127 127 102
0.468 -1.21 0.13 127 120 102
0.468 -1.2 0.13 127 120 102
0.468 -1.14 0.13 127 127 112
0.468 -1.13 0.13 127 127 127
0.473 -1.12 0.13 127 127 90
0.483 -1.22 0.13 127 127 102
0.478 -1.22 0.13 127 118 102
0.478 -1.12 0.13 127 126 104
0.483 -1.11 0.13 127 127 104
0.493 -1.22 0.13 127 127 110
0.488 -1.11 0.13 127 127 126
0.493 -1.1 0.13 127 127 126
0.503 -1.22 0.13 116 80 62
0.503 -1.1 0.13 127 127 127
0.508 -1.22 0.13 120 80 62
0.513 -1.21 0.13 120 78 62
0.513 -1.11 0.13 127 127 118
0.508 -1.11 0.13 127 127 127
0.518 -1.21 0.13 127 74 62
0.518 -1.2 0.13 78 64 58
0.518 -1.19 0.13 78 64 48
0.518 -1.18 0.13 84 64 56
0.518 -1.17 0.13 106 62 56
0.518 -1.16 0.13 106 80 76
0.518 -1.15 0.13 127 92 62
0.518 -1.14 0.13 127 96 62
0.523 -1.14 0.125 127 102 42
0.523 -1.13 0.125 127 112 100
0.518 -1.13 0.13 127 122 98
0.518 -1.12 0.13 127 127 118
0.234 -1.58 0.14 96 58 58
0.229 -1.58 0.14 96 58 58
0.229 -1.57 0.14 127 127 127
0.234 -1.56 0.135 127 127 112
0.229 -1.56 0.14 127 127 126
0.234 -1.55 0.14 127 127 112
0.244 -1.62 0.135 127 104 76
0.239 -1.61 0.14 112 127 127
0.244 -1.61 0.14 127 104 76
0.244 -1.6 0.135 112 127 127
0.244 -1.6 0.14 112 127 127
0.239 -1.59 0.14 96 76 76
0.244 -1.59 0.14 127 86 76
0.244 -1.55 0.14 127 127 116
0.254 -1.62 0.14 70 52 48
0.249 -1.62 0.14 127 100 76
0.249 -1.6 0.14 112 127 127
0.249 -1.55 0.14 127 127 94
0.254 -1.54 0.135 127 127 88
0.249 -1.54 0.14 127 116 94
0.254 -1.53 0.14 127 127 106
0.259 -1.62 0.14 54 46 46
0.264 -1.61 0.14 50 44 46
0.264 -1.53 0.135 127 127 104
0.259 -1.53 0.14 127 127 104
0.264 -1.52 0.14 127 126 92
0.274 -1.61 0.14 50 42 32
0.274 -1.53 0.135 96 90 86
0.274 -1.52 0.14 96 96 96
0.279 -1.61 0.14 52 42 32
0.284 -1.6 0.14 52 48 32
0.284 -1.54 0.14 127 104 68
0.279 -1.54 0.14 98 70 68
0.279 -1.53 0.14 96 90 76
0.289 -1.6 0.14 56 42 32
0.294 -1.59 0.14 56 52 24
0.294 -1.56 0.14 127 127 98
0.289 -1.56 0.14 127 127 98
0.289 -1.55 0.14 127 126 94
0.299 -1.59 0.14 98 52 24
0.299 -1.58 0.14 127 127 126
0.299 -1.57 0.14 127 127 112
0.453 -1.19 0.14 108 108 82
0.448 -1.19 0.14 108 108 82
0.448 -1.18 0.14 127 127 94
0.448 -1.17 0.14 127 127 108
0.453 -1.16 0.14 104 92 54
0.463 -1.2 0.135 127 122 102
0.458 -1.2 0.14 127 98 82
0.463 -1.2 0.14 127 122 102
0.458 -1.16 0.14 127 127 114
0.458 -1.15 0.14 127 127 114
0.463 -1.14 0.14 118 116 68
0.473 -1.21 0.14 127 127 98
0.468 -1.21 0.14 127 127 102
0.468 -1.14 0.14 127 127 127
0.468 -1.13 0.14 127 127 127
0.473 -1.12 0.14 127 127 90
0.483 -1.22 0.14 127 126 90
0.478 -1.22 0.14 127 118 98
0.483 -1.12 0.135 127 127 104
0.483 -1.12 0.14 127 127 104
0.493 -1.23 0.135 127 127 110
0.488 -1.23 0.14 126 120 90
0.493 -1.23 0.14 127 127 116
0.488 -1.12 0.14 127 127 126
0.493 -1.11 0.135 127 127 126
0.493 -1.11 0.14 127 127 126
0.498 -1.23 0.14 92 72 58
0.503 -1.22 0.14 92 68 44
0.503 -1.11 0.135 127 127 127
0.503 -1.11 0.14 127 127 127
0.508 -1.22 0.14 108 64 62
0.513 -1.21 0.14 108 78 62
0.513 -1.11 0.14 127 127 127
0.518 -1.21 0.14 127 74 62
0.518 -1.2 0.14 76 60 52
0.518 -1.19 0.14 76 58 46
0.518 -1.18 0.14 92 64 56
0.518 -1.17 0.14 110 68 56
0.518 -1.16 0.14 110 80 64
0.518 -1.15 0.14 127 98 86
0.518 -1.14 0.14 127 98 86
0.518 -1.13 0.14 127 122 98
0.518 -1.12 0.14 127 127 127
0.234 -1.58 0.145 96 58 58
0.234 -1.57 0.145 72 58 58
0.229 -1.56 0.15 127 127 126
0.234 -1.56 0.15 72 58 58
0.234 -1.55 0.15 127 127 126
0.244 -1.61 0.145 127 102 86
0.244 -1.59 0.15 127 92 76
0.239 -1.59 0.15 104 76 76
0.239 -1.58 0.15 127 127 112
0.239 -1.57 0.15 96 58 58
0.244 -1.55 0.145 127 127 114
0.239 -1.55 0.15 127 127 114
0.244 -1.54 0.15 127 127 114
0.254 -1.62 0.15 64 58 46
0.249 -1.62 0.15 127 127 127
0.254 -1.61 0.15 127 127 116
0.254 -1.61 0.145 127 127 116
0.254 -1.6 0.145 127 104 76
0.254 -1.59 0.15 127 104 76
0.249 -1.54 0.15 127 127 106
0.254 -1.53 0.15 127 127 106
0.259 -1.62 0.15 64 46 40
0.264 -1.61 0.15 56 46 40
0.259 -1.61 0.15 112 127 116
0.259 -1.6 0.15 127 100 76
0.259 -1.53 0.15 127 127 82
0.264 -1.52 0.15 127 127 82
0.274 -1.61 0.15 56 46 38
0.274 -1.52 0.145 127 127 92
0.269 -1.52 0.15 127 127 94
0.274 -1.51 0.15 127 126 76
0.279 -1.61 0.15 48 42 38
0.284 -1.6 0.15 48 42 36
0.284 -1.54 0.15 127 112 72
0.279 -1.54 0.15 92 70 46
0.279 -1.53 0.15 90 66 54
0.279 -1.52 0.15 94 98 74
0.289 -1.6 0.15 40 40 36
0.294 -1.59 0.15 56 50 26
0.294 -1.56 0.15 127 127 112
0.289 -1.56 0.15 127 98 80
0.289 -1.55 0.15 124 86 68
0.299 -1.59 0.15 98 52 26
0.299 -1.58 0.15 127 127 124
0.299 -1.57 0.15 127 127 98
0.453 -1.19 0.15 108 106 76
0.448 -1.19 0.15 108 110 92
0.448 -1.18 0.15 127 127 102
0.448 -1.17 0.15 127 127 108
0.453 -1.16 0.15 104 92 66
0.463 -1.2 0.15 127 124 108
0.458 -1.2 0.15 127 98 76
0.458 -1.16 0.15 127 127 118
0.458 -1.15 0.15 127 127 118
0.463 -1.14 0.15 127 116 68
0.473 -1.21 0.15 127 127 98
0.468 -1.21 0.15 127 122 108
0.468 -1.14 0.15 127 127 127
0.468 -1.13 0.15 127 127 127
0.473 -1.12 0.15 127 127 90
0.483 -1.22 0.15 127 126 90
0.478 -1.22 0.15 127 108 98
0.483 -1.12 0.15 127 127 106
0.493 -1.23 0.15 127 120 108
0.488 -1.23 0.15 126 114 90
0.488 -1.12 0.15 127 127 127
0.493 -1.11 0.15 127 127 127
0.498 -1.23 0.15 104 64 58
0.503 -1.22 0.15 104 68 44
0.503 -1.12 0.145 127 127 127
0.503 -1.12 0.15 127 127 127
0.498 -1.12 0.15 127 127 127
0.508 -1.22 0.15 127 72 44
0.513 -1.21 0.15 127 78 72
0.513 -1.13 0.145 127 116 104
0.513 -1.13 0.15 127 116 104
0.508 -1.13 0.15 127 116 104
0.513 -1.12 0.145 127 127 127
0.518 -1.21 0.15 127 96 72
0.518 -1.2 0.15 76 60 44
0.518 -1.19 0.15 74 58 46
0.518 -1.18 0.15 86 66 56
0.518 -1.17 0.15 100 66 56
0.518 -1.16 0.15 100 76 54
0.518 -1.15 0.15 127 100 82
0.518 -1.14 0.15 127 100 82
0.234 -1.56 0.16 70 58 58
0.229 -1.56 0.16 70 62 54
0.234 -1.55 0.155 127 127 96
0.229 -1.55 0.16 127 127 96
0.234 -1.54 0.16 127 127 96
0.244 -1.59 0.155 127 92 80
0.244 -1.58 0.155 104 76 76
0.239 -1.57 0.16 104 62 58
0.244 -1.57 0.16 104 82 80
0.244 -1.54 0.155 127 127 114
0.239 -1.54 0.16 127 127 96
0.244 -1.53 0.16 127 127 114
0.254 -1.62 0.155 64 58 46
0.254 -1.59 0.16 127 102 86
0.249 -1.59 0.16 127 92 80
0.249 -1.58 0.16 127 92 80
0.254 -1.53 0.16 127 127 114
0.264 -1.61 0.155 127 110 88
0.259 -1.6 0.16 127 100 86
0.264 -1.6 0.16 127 110 88
0.259 -1.53 0.16 127 112 78
0.264 -1.52 0.155 127 120 94
0.259 -1.52 0.16 127 104 78
0.264 -1.51 0.16 127 120 92
0.274 -1.61 0.155 56 46 38
0.274 -1.6 0.16 48 42 38
0.274 -1.51 0.16 88 127 127
0.284 -1.6 0.155 48 42 36
0.279 -1.6 0.16 48 46 40
0.284 -1.59 0.16 40 40 40
0.284 -1.54 0.155 108 78 66
0.284 -1.53 0.155 86 66 54
0.284 -1.52 0.16 102 80 58
0.279 -1.52 0.16 102 68 66
0.294 -1.59 0.16 40 42 44
0.294 -1.56 0.155 127 98 82
0.294 -1.55 0.155 124 86 60
0.294 -1.54 0.16 127 127 110
0.289 -1.54 0.16 108 78 70
0.289 -1.53 0.16 86 66 54
0.299 -1.59 0.16 72 46 44
0.299 -1.58 0.16 127 127 124
0.299 -1.57 0.16 127 127 90
0.299 -1.56 0.16 127 98 82
0.299 -1.55 0.16 127 90 60
0.453 -1.2 0.155 127 98 76
0.448 -1.2 0.16 104 106 78
0.453 -1.2 0.16 127 98 78
0.448 -1.19 0.16 127 127 90
0.448 -1.18 0.16 127 127 114
0.448 -1.17 0.16 127 127 114
0.453 -1.16 0.16 108 94 66
0.463 -1.2 0.16 127 112 96
0.458 -1.16 0.16 127 127 118
0.458 -1.15 0.16 127 127 127
0.463 -1.14 0.16 127 127 82
0.473 -1.22 0.155 127 126 88
0.468 -1.22 0.16 127 126 88
0.473 -1.22 0.16 127 126 88
0.468 -1.21 0.16 127 122 96
0.468 -1.14 0.16 127 116 90
0.473 -1.13 0.155 127 127 90
0.473 -1.13 0.16 127 127 127
0.483 -1.23 0.155 127 114 90
0.478 -1.23 0.16 127 116 88
0.483 -1.23 0.16 127 114 90
0.483 -1.14 0.155 127 127 127
0.483 -1.14 0.16 127 127 127
0.478 -1.14 0.16 127 127 127
0.483 -1.13 0.155 127 127 127
0.493 -1.23 0.16 127 116 108
0.488 -1.14 0.16 127 127 106
0.493 -1.13 0.155 127 127 127
0.493 -1.13 0.16 127 127 106
0.493 -1.12 0.155 127 127 127
0.503 -1.23 0.16 118 86 76
0.503 -1.23 0.155 104 86 76
0.503 -1.13 0.155 127 127 127
0.503 -1.13 0.16 127 127 127
0.508 -1.23 0.16 118 86 76
0.508 -1.22 0.16 127 72 76
0.513 -1.21 0.16 127 100 68
0.513 -1.14 0.155 127 116 104
0.513 -1.14 0.16 127 100 76
0.508 -1.14 0.16 127 127 127
0.518 -1.21 0.16 127 96 68
0.518 -1.2 0.16 74 52 44
0.518 -1.19 0.16 74 60 40
0.518 -1.18 0.16 80 64 56
0.518 -1.17 0.16 84 56 56
0.518 -1.16 0.16 84 76 54
0.518 -1.15 0.16 112 92 76
0.234 -1.56 0.17 70 60 52
0.229 -1.56 0.17 70 62 62
0.229 -1.55 0.17 127 127 96
0.234 -1.54 0.17 127 127 78
0.244 -1.57 0.17 106 82 80
0.239 -1.57 0.17 106 64 52
0.239 -1.54 0.17 127 127 78
0.244 -1.53 0.17 127 127 98
0.254 -1.59 0.165 127 102 86
0.249 -1.58 0.17 127 84 80
0.254 -1.58 0.17 127 84 80
0.254 -1.53 0.165 127 112 84
0.249 -1.53 0.17 127 116 84
0.254 -1.52 0.165 127 114 84
0.249 -1.52 0.17 127 114 90
0.254 -1.51 0.17 127 127 98
0.264 -1.6 0.165 127 100 86
0.264 -1.59 0.17 127 100 86
0.259 -1.59 0.17 127 102 86
0.264 -1.51 0.17 127 122 92
0.274 -1.6 0.17 50 42 38
0.269 -1.6 0.17 127 110 88
0.274 -1.51 0.165 127 126 108
0.269 -1.51 0.17 127 127 90
0.274 -1.5 0.17 127 126 84
0.279 -1.6 0.17 50 46 40
0.284 -1.59 0.17 50 46 40
0.284 -1.52 0.17 106 90 70
0.279 -1.52 0.17 92 74 48
0.279 -1.51 0.17 98 106 88
0.294 -1.59 0.165 40 42 44
0.289 -1.59 0.17 52 44 40
0.294 -1.58 0.17 52 42 44
0.294 -1.54 0.17 127 127 108
0.289 -1.54 0.17 116 82 70
0.289 -1.53 0.17 92 70 54
0.299 -1.58 0.17 62 44 44
0.299 -1.57 0.17 127 127 100
0.299 -1.56 0.17 127 127 104
0.299 -1.55 0.17 127 127 104
0.453 -1.2 0.17 127 94 78
0.448 -1.2 0.17 94 106 78
0.448 -1.19 0.17 127 127 74
0.448 -1.18 0.17 127 127 114
0.448 -1.17 0.17 127 127 114
0.453 -1.16 0.17 108 94 82
0.463 -1.22 0.165 127 118 96
0.458 -1.22 0.17 127 106 94
0.463 -1.22 0.17 127 118 94
0.463 -1.21 0.165 127 112 96
0.458 -1.21 0.17 127 112 96
0.458 -1.16 0.17 127 110 82
0.463 -1.15 0.165 127 110 82
0.463 -1.15 0.17 127 110 82
0.473 -1.22 0.17 127 127 92
0.473 -1.15 0.165 127 127 127
0.473 -1.15 0.17 127 127 127
0.473 -1.14 0.165 127 127 127
0.483 -1.24 0.165 127 118 106
0.478 -1.24 0.17 127 118 92
0.483 -1.24 0.17 127 118 106
0.478 -1.23 0.17 127 116 92
0.483 -1.15 0.165 127 127 90
0.483 -1.15 0.17 127 127 90
0.488 -1.24 0.17 127 116 106
0.493 -1.23 0.17 84 64 52
0.488 -1.15 0.17 127 127 106
0.493 -1.14 0.165 127 127 106
0.493 -1.14 0.17 127 127 127
0.503 -1.23 0.17 118 84 54
0.503 -1.15 0.165 127 100 76
0.503 -1.15 0.17 127 127 76
0.498 -1.15 0.17 127 127 127
0.503 -1.14 0.165 127 127 127
0.508 -1.23 0.17 118 84 54
0.508 -1.22 0.17 127 86 54
0.513 -1.21 0.17 127 104 84
0.513 -1.17 0.165 84 56 52
0.513 -1.17 0.17 84 56 52
0.508 -1.17 0.17 84 70 58
0.513 -1.16 0.165 112 76 58
0.508 -1.16 0.17 126 72 58
0.513 -1.15 0.165 126 92 76
0.518 -1.21 0.17 127 118 84
0.518 -1.2 0.17 74 54 46
0.518 -1.19 0.17 74 60 46
0.518 -1.18 0.17 80 60 52
0.234 -1.56 0.175 76 60 52
0.234 -1.55 0.175 127 127 96
0.234 -1.54 0.175 127 127 88
0.229 -1.54 0.18 127 127 100
0.234 -1.54 0.18 76 58 62
0.234 -1.53 0.18 127 124 100
0.244 -1.57 0.175 106 64 52
0.244 -1.56 0.18 106 64 52
0.239 -1.56 0.18 76 60 52
0.239 -1.55 0.18 76 60 52
0.244 -1.53 0.175 127 127 98
0.239 -1.53 0.18 127 127 80
0.244 -1.52 0.18 127 127 80
0.254 -1.58 0.175 127 84 80
0.254 -1.57 0.18 127 84 80
0.249 -1.57 0.18 106 82 80
0.249 -1.52 0.18 127 124 98
0.254 -1.51 0.18 127 127 98
0.264 -1.59 0.175 127 100 78
0.264 -1.58 0.18 127 98 78
0.259 -1.58 0.18 127 98 78
0.264 -1.51 0.175 127 127 90
0.259 -1.51 0.18 127 122 90
0.264 -1.5 0.18 127 127 90
0.274 -1.6 0.175 50 42 42
0.274 -1.59 0.18 127 108 86
0.269 -1.59 0.18 127 100 78
0.274 -1.5 0.18 127 126 84
0.284 -1.59 0.18 50 42 42
0.284 -1.52 0.175 86 64 52
0.284 -1.51 0.175 94 84 62
0.284 -1.5 0.18 88 64 58
0.289 -1.59 0.18 52 44 42
0.294 -1.58 0.18 52 44 40
0.294 -1.54 0.175 124 82 64
0.294 -1.53 0.175 102 72 62
0.294 -1.52 0.18 127 104 80
0.289 -1.52 0.18 86 68 52
0.289 -1.51 0.18 86 64 62
0.299 -1.58 0.18 62 44 40
0.299 -1.57 0.18 127 127 108
0.299 -1.56 0.18 127 127 98
0.299 -1.55 0.18 127 120 98
0.299 -1.54 0.18 124 82 64
0.299 -1.53 0.18 102 72 56
0.453 -1.21 0.175 127 94 80
0.448 -1.21 0.18 127 84 80
0.453 -1.21 0.18 127 84 80
0.448 -1.2 0.18 127 127 106
0.448 -1.19 0.18 127 127 106
0.448 -1.18 0.18 127 127 114
0.453 -1.17 0.175 120 98 82
0.453 -1.17 0.18 120 106 66
0.463 -1.22 0.18 127 112 94
0.458 -1.22 0.18 127 106 94
0.458 -1.17 0.18 120 98 82
0.463 -1.16 0.175 127 110 82
0.463 -1.16 0.18 127 110 82
0.473 -1.23 0.175 127 116 92
0.468 -1.23 0.18 127 127 92
0.473 -1.23 0.18 127 122 92
0.473 -1.16 0.175 127 127 82
0.473 -1.16 0.18 127 127 82
0.483 -1.24 0.18 127 104 84
0.478 -1.24 0.18 127 122 84
0.478 -1.16 0.18 127 116 90
0.483 -1.15 0.18 127 127 90
0.493 -1.24 0.18 127 122 104
0.493 -1.24 0.175 127 122 106
0.493 -1.15 0.175 127 127 127
0.493 -1.15 0.18 127 127 127
0.503 -1.24 0.175 127 116 94
0.503 -1.24 0.18 126 70 44
0.503 -1.15 0.18 127 127 127
0.508 -1.24 0.18 126 92 62
0.513 -1.23 0.175 127 127 127
0.513 -1.23 0.18 127 84 62
0.513 -1.22 0.175 127 127 127
0.513 -1.17 0.18 86 56 38
0.508 -1.17 0.18 86 72 70
0.508 -1.16 0.18 126 72 70
0.518 -1.23 0.18 127 112 88
0.518 -1.22 0.18 127 127 127
0.518 -1.21 0.18 66 58 46
0.518 -1.2 0.18 70 52 46
0.518 -1.19 0.18 70 56 52
0.518 -1.18 0.18 72 58 38
0.234 -1.54 0.19 76 58 56
0.229 -1.54 0.19 74 64 56
0.234 -1.53 0.185 127 127 90
0.229 -1.53 0.19 127 124 92
0.234 -1.52 0.19 127 127 96
0.244 -1.56 0.19 106 64 54
0.239 -1.56 0.19 76 60 54
0.239 -1.55 0.19 76 60 54
0.244 -1.52 0.185 127 127 80
0.239 -1.52 0.19 127 118 76
0.244 -1.51 0.19 127 127 76
0.254 -1.57 0.185 106 78 80
0.254 -1.56 0.19 106 78 80
0.254 -1.51 0.19 127 127 88
0.264 -1.58 0.185 127 98 78
0.264 -1.57 0.19 127 98 78
0.259 -1.57 0.19 127 84 80
0.259 -1.51 0.19 127 122 100
0.264 -1.5 0.19 127 127 100
0.274 -1.59 0.185 127 108 86
0.274 -1.58 0.19 127 92 78
0.269 -1.58 0.19 127 92 78
0.274 -1.5 0.19 127 126 88
0.284 -1.59 0.19 52 46 32
0.279 -1.59 0.19 127 108 86
0.284 -1.5 0.19 106 70 50
0.289 -1.59 0.19 54 44 32
0.294 -1.58 0.19 54 46 44
0.294 -1.52 0.19 127 108 72
0.289 -1.52 0.19 127 100 72
0.289 -1.51 0.19 106 74 58
0.299 -1.58 0.19 56 52 40
0.299 -1.57 0.19 127 127 96
0.299 -1.56 0.19 127 127 92
0.299 -1.55 0.19 127 120 92
0.299 -1.54 0.19 127 118 94
0.299 -1.53 0.19 127 126 86
0.453 -1.22 0.185 127 106 90
0.448 -1.22 0.19 127 84 68
0.453 -1.22 0.19 127 106 90
0.448 -1.21 0.19 127 127 92
0.448 -1.2 0.19 127 127 106
0.448 -1.19 0.19 127 127 106
0.453 -1.18 0.185 120 106 66
0.453 -1.18 0.19 120 106 66
0.463 -1.23 0.185 127 112 90
0.458 -1.23 0.19 127 116 90
0.463 -1.23 0.19 127 127 106
0.463 -1.18 0.185 120 98 82
0.463 -1.18 0.19 120 98 82
0.463 -1.17 0.185 127 110 82
0.473 -1.24 0.185 127 122 106
0.468 -1.24 0.19 127 122 106
0.473 -1.24 0.19 127 122 106
0.468 -1.18 0.19 127 110 82
0.473 -1.17 0.185 127 127 127
0.473 -1.17 0.19 127 110 82
0.483 -1.24 0.19 127 112 84
0.483 -1.17 0.185 127 116 90
0.483 -1.17 0.19 127 127 82
0.483 -1.16 0.185 127 116 78
0.493 -1.25 0.185 127 126 104
0.488 -1.25 0.19 127 112 84
0.493 -1.25 0.19 127 127 96
0.488 -1.17 0.19 127 116 90
0.493 -1.16 0.185 127 127 127
0.493 -1.16 0.19 127 127 90
0.498 -1.25 0.19 127 127 96
0.503 -1.24 0.19 127 76 44
0.503 -1.17 0.185 127 82 70
0.503 -1.17 0.19 90 72 70
0.498 -1.17 0.19 127 82 70
0.503 -1.16 0.185 127 116 127
0.508 -1.24 0.19 127 92 62
0.513 -1.23 0.19 127 90 62
0.513 -1.19 0.185 72 52 52
0.513 -1.19 0.19 68 56 52
0.508 -1.19 0.19 76 52 52
0.513 -1.18 0.185 76 58 38
0.508 -1.18 0.19 90 64 38
0.518 -1.23 0.19 127 112 88
0.518 -1.22 0.19 72 52 42
0.518 -1.21 0.19 68 52 44
0.518 -1.2 0.19 68 52 44
0.234 -1.54 0.2 76 58 56
0.229 -1.54 0.2 70 64 56
0.229 -1.53 0.2 127 120 92
0.234 -1.52 0.2 127 127 96
0.244 -1.56 0.2 98 64 52
0.239 -1.56 0.2 76 60 54
0.239 -1.55 0.2 76 58 56
0.239 -1.52 0.2 127 114 84
0.244 -1.51 0.2 127 127 84
0.254 -1.56 0.2 62 48 50
0.254 -1.51 0.195 127 127 88
0.249 -1.51 0.2 127 126 82
0.254 -1.5 0.2 127 127 82
0.264 -1.57 0.195 127 84 80
0.264 -1.56 0.2 127 84 80
0.264 -1.5 0.2 127 127 104
0.274 -1.58 0.195 127 92 78
0.274 -1.57 0.2 127 92 78
0.269 -1.57 0.2 127 98 78
0.274 -1.5 0.195 127 124 88
0.269 -1.5 0.2 127 124 80
0.274 -1.49 0.2 127 127 80
0.284 -1.59 0.195 54 44 32
0.284 -1.58 0.195 127 108 86
0.284 -1.57 0.2 127 108 86
0.284 -1.5 0.2 108 86 68
0.279 -1.5 0.2 88 72 68
0.294 -1.58 0.2 50 46 44
0.289 -1.58 0.2 127 100 86
0.294 -1.52 0.2 127 106 84
0.289 -1.52 0.2 96 72 58
0.289 -1.51 0.2 96 70 54
0.299 -1.58 0.2 54 42 44
0.299 -1.57 0.2 127 127 96
0.299 -1.56 0.2 127 120 100
0.299 -1.55 0.2 127 120 100
0.299 -1.54 0.2 127 104 82
0.299 -1.53 0.2 127 120 92
0.443 -1.22 0.195 68 66 68
0.438 -1.22 0.2 68 54 60
0.443 -1.22 0.2 127 78 60
0.443 -1.21 0.195 127 127 104
0.438 -1.21 0.2 127 127 104
0.443 -1.2 0.2 102 88 78
0.453 -1.23 0.195 127 106 90
0.448 -1.23 0.2 127 106 90
0.453 -1.23 0.2 127 106 90
0.448 -1.2 0.2 114 106 76
0.453 -1.19 0.195 114 102 66
0.453 -1.19 0.2 114 102 66
0.463 -1.23 0.2 127 127 80
0.458 -1.19 0.2 120 114 66
0.463 -1.18 0.2 120 98 78
0.473 -1.24 0.2 127 122 80
0.468 -1.24 0.2 127 122 80
0.473 -1.18 0.195 127 110 82
0.473 -1.18 0.2 127 116 78
0.483 -1.25 0.195 127 112 92
0.478 -1.25 0.2 127 127 92
0.483 -1.25 0.2 127 122 92
0.478 -1.18 0.2 127 110 82
0.483 -1.17 0.2 127 127 82
0.493 -1.25 0.2 127 127 96
0.488 -1.17 0.2 127 116 78
0.493 -1.16 0.2 127 127 78
0.503 -1.25 0.2 118 76 58
0.503 -1.25 0.195 127 76 58
0.503 -1.17 0.2 104 78 58
0.498 -1.17 0.2 127 108 58
0.508 -1.25 0.2 127 80 58
0.513 -1.24 0.195 127 94 66
0.513 -1.24 0.2 127 94 66
0.513 -1.19 0.2 64 58 38
0.508 -1.19 0.2 72 52 38
0.508 -1.18 0.2 104 66 56
0.518 -1.24 0.2 127 102 66
0.518 -1.23 0.2 68 56 44
0.518 -1.22 0.2 68 56 40
0.518 -1.21 0.2 64 52 48
0.518 -1.2 0.2 64 50 48
0.234 -1.54 0.21 76 58 46
0.229 -1.54 0.21 70 60 46
0.229 -1.53 0.21 127 120 84
0.234 -1.52 0.21 127 127 92
0.244 -1.56 0.21 92 62 52
0.239 -1.56 0.21 80 64 52
0.239 -1.55 0.21 76 58 46
0.239 -1.52 0.21 127 120 92
0.244 -1.51 0.205 127 127 82
0.239 -1.51 0.21 127 104 80
0.244 -1.5 0.21 127 127 98
0.254 -1.56 0.21 62 48 58
0.254 -1.5 0.21 127 127 82
0.264 -1.56 0.21 127 84 68
0.264 -1.5 0.205 127 127 104
0.259 -1.5 0.21 127 124 92
0.264 -1.49 0.21 127 127 92
0.274 -1.57 0.21 127 86 78
0.269 -1.57 0.21 127 90 78
0.274 -1.49 0.205 127 127 80
0.269 -1.49 0.21 127 127 88
0.274 -1.48 0.21 127 122 72
0.284 -1.57 0.21 118 76 62
0.284 -1.5 0.21 120 88 64
0.279 -1.5 0.21 86 64 52
0.279 -1.49 0.21 94 84 90
0.294 -1.58 0.205 54 42 44
0.294 -1.57 0.21 54 42 36
0.294 -1.52 0.205 120 80 60
0.294 -1.51 0.205 104 70 54
0.294 -1.5 0.21 120 80 56
0.299 -1.57 0.21 54 48 42
0.299 -1.56 0.21 127 98 78
0.299 -1.55 0.21 127 110 90
0.299 -1.54 0.21 127 100 82
0.299 -1.53 0.21 127 120 82
0.299 -1.52 0.21 120 86 64
0.299 -1.51 0.21 104 72 58
0.443 -1.22 0.21 127 78 60
0.438 -1.22 0.21 88 54 60
0.438 -1.21 0.21 127 127 116
0.443 -1.2 0.21 112 100 76
0.453 -1.24 0.205 127 118 90
0.448 -1.24 0.21 127 104 86
0.453 -1.24 0.21 127 118 86
0.448 -1.23 0.21 127 106 90
0.448 -1.2 0.21 124 106 76
0.453 -1.19 0.21 124 106 66
0.463 -1.24 0.205 127 127 80
0.463 -1.24 0.21 127 127 104
0.458 -1.19 0.21 127 114 66
0.463 -1.18 0.21 127 114 78
0.473 -1.25 0.205 127 127 92
0.468 -1.25 0.21 127 127 104
0.473 -1.25 0.21 127 127 108
0.473 -1.18 0.21 127 116 78
0.483 -1.25 0.21 127 127 82
0.478 -1.18 0.21 127 106 82
0.483 -1.17 0.21 127 127 82
0.493 -1.25 0.21 127 127 98
0.493 -1.17 0.205 127 127 127
0.493 -1.17 0.21 127 118 78
0.503 -1.25 0.21 127 122 98
0.503 -1.17 0.21 118 92 96
0.513 -1.25 0.21 127 80 60
0.513 -1.25 0.205 127 102 52
0.513 -1.2 0.205 64 50 44
0.513 -1.2 0.21 64 50 44
0.508 -1.2 0.21 64 52 30
0.508 -1.19 0.21 78 56 30
0.508 -1.18 0.21 118 74 62
0.518 -1.25 0.21 127 102 52
0.518 -1.24 0.21 74 72 60
0.518 -1.23 0.21 66 56 44
0.518 -1.22 0.21 66 56 42
0.518 -1.21 0.21 64 56 44
0.234 -1.54 0.22 80 52 46
0.229 -1.54 0.22 72 60 46
0.229 -1.53 0.22 127 118 84
0.234 -1.52 0.215 127 110 78
0.229 -1.52 0.22 127 110 84
0.234 -1.51 0.22 127 118 78
0.244 -1.56 0.215 92 62 52
0.239 -1.55 0.22 80 52 46
0.244 -1.55 0.22 80 64 52
0.239 -1.51 0.22 127 127 78
0.244 -1.5 0.22 127 122 98
0.254 -1.56 0.22 92 64 48
0.249 -1.56 0.22 92 62 52
0.254 -1.5 0.215 127 127 92
0.249 -1.5 0.22 127 127 98
0.254 -1.49 0.22 127 127 96
0.264 -1.56 0.22 70 54 50
0.264 -1.49 0.22 127 127 92
0.274 -1.57 0.215 120 90 78
0.274 -1.56 0.22 120 90 78
0.269 -1.49 0.22 127 110 88
0.274 -1.48 0.22 127 114 84
0.284 -1.57 0.22 127 94 72
0.279 -1.57 0.22 127 86 78
0.284 -1.5 0.215 86 64 52
0.284 -1.49 0.215 88 84 90
0.284 -1.48 0.22 80 64 60
0.294 -1.57 0.22 58 36 36
0.294 -1.5 0.22 122 88 72
0.289 -1.5 0.22 86 66 50
0.289 -1.49 0.22 86 64 64
0.299 -1.57 0.22 58 48 42
0.304 -1.56 0.22 64 44 42
0.304 -1.56 0.215 127 104 82
0.304 -1.55 0.22 127 104 70
0.299 -1.55 0.22 127 98 70
0.299 -1.54 0.22 127 100 70
0.299 -1.53 0.22 127 114 82
0.299 -1.52 0.22 127 106 74
0.299 -1.51 0.22 127 100 74
0.309 -1.56 0.22 127 104 76
0.443 -1.24 0.215 127 104 86
0.438 -1.24 0.22 127 84 76
0.443 -1.24 0.22 127 104 86
0.443 -1.23 0.215 127 78 76
0.438 -1.23 0.22 127 127 94
0.438 -1.22 0.22 127 127 100
0.438 -1.21 0.22 127 127 116
0.443 -1.2 0.22 112 100 58
0.453 -1.24 0.22 127 116 86
0.453 -1.2 0.215 124 106 66
0.453 -1.2 0.22 124 106 76
0.463 -1.25 0.215 127 127 104
0.458 -1.25 0.22 127 127 104
0.463 -1.25 0.22 127 127 104
0.458 -1.2 0.22 124 106 96
0.463 -1.19 0.215 127 114 72
0.463 -1.19 0.22 127 120 96
0.473 -1.26 0.215 127 127 108
0.468 -1.26 0.22 127 127 114
0.473 -1.26 0.22 127 127 114
0.468 -1.19 0.22 127 114 72
0.473 -1.18 0.22 127 127 72
0.483 -1.26 0.215 127 127 82
0.483 -1.26 0.22 127 126 108
0.478 -1.18 0.22 127 106 70
0.483 -1.17 0.22 127 122 70
0.493 -1.26 0.215 127 127 98
0.493 -1.26 0.22 127 127 116
0.493 -1.17 0.22 127 127 127
0.503 -1.26 0.215 127 127 98
0.503 -1.26 0.22 126 92 68
0.503 -1.18 0.215 118 74 64
0.503 -1.18 0.22 118 74 64
0.498 -1.18 0.22 118 118 127
0.508 -1.26 0.22 127 80 68
0.513 -1.25 0.22 127 80 68
0.513 -1.2 0.22 64 48 40
0.508 -1.2 0.22 64 56 50
0.508 -1.19 0.22 78 56 50
0.518 -1.25 0.22 127 116 84
0.518 -1.24 0.22 76 72 40
0.518 -1.23 0.22 64 52 48
0.518 -1.22 0.22 64 54 38
0.518 -1.21 0.22 62 52 40
0.224 -1.52 0.225 127 124 86
0.219 -1.52 0.23 127 127 94
0.224 -1.52 0.23 80 72 58
0.224 -1.51 0.23 127 116 86
0.234 -1.54 0.23 72 58 48
0.229 -1.54 0.23 72 58 48
0.229 -1.53 0.23 72 60 56
0.234 -1.51 0.225 127 118 72
0.229 -1.51 0.23 127 118 72
0.234 -1.5 0.23 127 127 72
0.244 -1.55 0.23 80 62 60
0.239 -1.55 0.23 80 52 48
0.244 -1.5 0.225 127 122 106
0.239 -1.5 0.23 127 126 106
0.244 -1.49 0.23 127 127 106
0.254 -1.56 0.225 92 64 48
0.254 -1.55 0.23 92 62 60
0.254 -1.49 0.23 127 127 96
0.264 -1.56 0.23 94 56 48
0.259 -1.56 0.23 92 64 48
0.264 -1.49 0.23 127 127 96
0.274 -1.56 0.23 58 36 34
0.269 -1.49 0.23 116 92 66
0.274 -1.48 0.225 127 108 84
0.269 -1.48 0.23 127 126 72
0.274 -1.47 0.23 127 108 94
0.284 -1.57 0.225 127 86 70
0.284 -1.56 0.23 127 86 70
0.284 -1.48 0.23 88 68 58
0.279 -1.48 0.23 92 96 98
0.294 -1.57 0.23 52 44 42
0.289 -1.57 0.23 127 94 72
0.294 -1.5 0.23 124 86 74
0.289 -1.5 0.23 98 70 58
0.289 -1.49 0.23 106 80 58
0.299 -1.57 0.23 52 44 34
0.304 -1.56 0.23 64 44 34
0.304 -1.55 0.225 127 104 72
0.304 -1.54 0.225 127 100 76
0.304 -1.53 0.23 127 96 76
0.299 -1.53 0.23 127 96 66
0.299 -1.52 0.23 127 90 66
0.299 -1.51 0.23 127 96 82
0.309 -1.56 0.23 64 52 54
0.309 -1.55 0.23 127 104 72
0.309 -1.54 0.23 127 104 76
0.443 -1.25 0.225 127 98 98
0.438 -1.25 0.23 127 84 72
0.443 -1.25 0.23 127 98 98
0.438 -1.24 0.23 127 127 100
0.438 -1.23 0.23 127 127 100
0.438 -1.22 0.23 127 127 122
0.443 -1.21 0.225 112 100 58
0.443 -1.21 0.23 112 104 76
0.453 -1.25 0.225 127 116 98
0.453 -1.25 0.23 127 127 100
0.448 -1.21 0.23 112 100 58
0.453 -1.2 0.23 124 108 58
0.463 -1.26 0.225 127 127 100
0.458 -1.26 0.23 127 127 100
0.463 -1.26 0.23 127 127 100
0.458 -1.2 0.23 124 102 96
0.463 -1.19 0.23 127 120 96
0.473 -1.26 0.23 127 127 114
0.473 -1.19 0.225 127 127 72
0.473 -1.19 0.23 127 127 72
0.483 -1.27 0.225 127 127 90
0.478 -1.27 0.23 127 124 114
0.483 -1.27 0.23 127 127 90
0.478 -1.19 0.23 127 127 72
0.483 -1.18 0.225 127 122 70
0.483 -1.18 0.23 127 112 70
0.493 -1.27 0.225 127 127 116
0.493 -1.27 0.23 127 127 118
0.488 -1.18 0.23 127 122 70
0.493 -1.17 0.23 127 122 110
0.498 -1.27 0.23 127 72 54
0.503 -1.26 0.23 127 92 68
0.503 -1.18 0.23 127 84 68
0.498 -1.18 0.23 127 127 127
0.513 -1.26 0.23 127 126 120
0.513 -1.26 0.225 127 96 68
0.513 -1.2 0.23 68 50 16
0.508 -1.2 0.23 68 62 60
0.508 -1.19 0.23 90 60 60
0.518 -1.26 0.23 80 36 34
0.518 -1.25 0.23 127 70 48
0.518 -1.24 0.23 88 72 54
0.518 -1.23 0.23 62 54 38
0.518 -1.22 0.23 62 54 38
0.518 -1.21 0.23 62 50 64
0.224 -1.52 0.24 72 62 56
0.219 -1.52 0.24 127 127 94
0.224 -1.51 0.24 127 116 90
0.234 -1.54 0.24 72 58 48
0.229 -1.54 0.24 72 58 48
0.229 -1.53 0.24 72 56 56
0.229 -1.51 0.24 127 118 86
0.234 -1.5 0.24 127 127 86
0.244 -1.55 0.24 74 58 52
0.239 -1.55 0.24 74 56 48
0.239 -1.5 0.24 127 126 90
0.244 -1.49 0.24 127 127 90
0.254 -1.55 0.24 70 50 44
0.254 -1.49 0.24 127 127 102
0.264 -1.56 0.235 94 56 48
0.264 -1.55 0.24 56 48 34
0.264 -1.49 0.235 127 122 72
0.259 -1.49 0.24 127 127 102
0.264 -1.48 0.24 127 124 72
0.274 -1.56 0.235 94 76 70
0.274 -1.55 0.24 94 56 48
0.269 -1.48 0.24 127 126 72
0.274 -1.47 0.24 127 114 94
0.284 -1.56 0.24 122 72 70
0.279 -1.56 0.24 94 76 70
0.284 -1.48 0.235 92 72 74
0.284 -1.47 0.235 90 70 58
0.279 -1.47 0.24 127 116 94
0.284 -1.46 0.24 127 110 72
0.294 -1.57 0.235 52 44 42
0.294 -1.56 0.24 52 44 30
0.294 -1.5 0.235 108 70 58
0.294 -1.49 0.24 126 96 70
0.289 -1.49 0.24 112 80 52
0.289 -1.48 0.24 90 72 74
0.289 -1.47 0.24 96 90 86
0.304 -1.56 0.24 60 44 34
0.304 -1.53 0.235 127 100 78
0.304 -1.52 0.235 127 88 72
0.304 -1.51 0.24 127 92 72
0.299 -1.51 0.24 120 88 70
0.299 -1.5 0.24 108 72 62
0.309 -1.56 0.24 60 44 34
0.309 -1.55 0.24 127 127 100
0.309 -1.54 0.24 127 116 84
0.309 -1.53 0.24 127 100 78
0.309 -1.52 0.24 127 88 72
0.443 -1.25 0.24 127 108 86
0.438 -1.25 0.24 127 84 66
0.438 -1.24 0.24 127 127 100
0.438 -1.23 0.24 127 127 100
0.438 -1.22 0.24 127 127 122
0.443 -1.21 0.24 127 104 76
0.453 -1.26 0.235 127 127 98
0.448 -1.26 0.24 127 108 86
0.453 -1.26 0.24 127 127 98
0.453 -1.21 0.235 124 108 58
0.453 -1.21 0.24 124 108 58
0.463 -1.27 0.235 127 127 104
0.458 -1.27 0.24 127 127 98
0.463 -1.27 0.24 127 127 104
0.458 -1.21 0.24 124 102 96
0.463 -1.2 0.235 127 120 96
0.463 -1.2 0.24 127 120 96
0.473 -1.27 0.235 127 124 104
0.473 -1.27 0.24 127 127 104
0.468 -1.2 0.24 127 114 86
0.473 -1.19 0.24 127 114 86
0.483 -1.28 0.235 127 127 94
0.478 -1.28 0.24 127 127 94
0.483 -1.28 0.24 127 124 94
0.478 -1.19 0.24 127 120 86
0.483 -1.18 0.24 127 112 84
0.493 -1.28 0.235 127 127 118
0.493 -1.28 0.24 127 127 104
0.488 -1.18 0.24 127 127 84
0.493 -1.17 0.24 127 127 110
0.498 -1.28 0.24 114 74 64
0.503 -1.27 0.235 127 127 118
0.503 -1.27 0.24 127 127 118
0.503 -1.18 0.24 127 100 84
0.498 -1.18 0.24 127 127 127
0.513 -1.27 0.235 127 126 118
0.513 -1.27 0.24 127 92 78
0.513 -1.2 0.24 76 56 16
0.508 -1.2 0.24 76 62 60
0.508 -1.19 0.24 110 66 52
0.518 -1.27 0.24 127 98 78
0.523 -1.26 0.235 84 26 34
0.523 -1.26 0.24 127 122 70
0.523 -1.25 0.235 127 74 48
0.523 -1.24 0.24 127 127 127
0.518 -1.24 0.24 127 127 127
0.518 -1.23 0.24 127 127 127
0.518 -1.22 0.24 60 54 64
0.518 -1.21 0.24 66 52 64
0.528 -1.26 0.24 127 118 70
0.528 -1.25 0.24 127 72 54
0.224 -1.52 0.25 72 58 46
0.219 -1.52 0.25 72 70 62
0.224 -1.51 0.245 127 124 106
0.219 -1.51 0.25 127 126 90
0.224 -1.5 0.25 127 127 84
0.234 -1.54 0.25 72 54 54
0.229 -1.54 0.25 72 56 46
0.229 -1.53 0.25 72 56 46
0.234 -1.5 0.25 127 127 86
0.244 -1.55 0.25 72 58 52
0.239 -1.55 0.25 72 50 54
0.239 -1.5 0.25 127 126 90
0.244 -1.49 0.25 127 127 80
0.254 -1.55 0.25 70 50 44
0.254 -1.49 0.245 127 127 102
0.249 -1.49 0.25 127 127 88
0.254 -1.48 0.25 127 127 88
0.264 -1.55 0.25 70 48 50
0.264 -1.48 0.245 127 124 90
0.259 -1.48 0.25 127 124 90
0.264 -1.47 0.25 127 127 90
0.274 -1.55 0.25 68 54 50
0.274 -1.47 0.245 127 126 76
0.269 -1.47 0.25 127 124 76
0.274 -1.46 0.25 127 126 76
0.284 -1.56 0.245 122 72 60
0.284 -1.55 0.25 94 58 60
0.284 -1.46 0.25 86 72 72
0.294 -1.56 0.25 84 74 96
0.289 -1.56 0.25 122 72 60
0.294 -1.49 0.25 127 100 68
0.289 -1.49 0.25 92 70 48
0.289 -1.48 0.25 88 66 56
0.289 -1.47 0.25 86 68 58
0.304 -1.56 0.245 60 44 34
0.299 -1.56 0.25 54 44 34
0.304 -1.55 0.25 66 50 34
0.304 -1.51 0.245 127 90 68
0.304 -1.5 0.25 110 82 68
0.299 -1.5 0.25 127 94 76
0.309 -1.55 0.25 66 50 24
0.309 -1.54 0.25 127 116 96
0.309 -1.53 0.25 127 106 96
0.309 -1.52 0.25 127 100 78
0.309 -1.51 0.25 127 90 68
0.443 -1.25 0.25 127 108 86
0.438 -1.25 0.25 127 84 66
0.438 -1.24 0.25 127 127 114
0.438 -1.23 0.25 127 127 114
0.443 -1.22 0.245 127 112 80
0.443 -1.22 0.25 127 112 80
0.453 -1.27 0.245 127 127 98
0.448 -1.27 0.25 127 122 98
0.453 -1.27 0.25 127 127 98
0.448 -1.26 0.25 127 110 100
0.448 -1.22 0.25 127 98 68
0.453 -1.21 0.25 124 114 68
0.463 -1.27 0.25 127 127 98
0.458 -1.21 0.25 124 102 80
0.463 -1.2 0.25 127 112 80
0.473 -1.28 0.245 127 127 104
0.468 -1.28 0.25 127 127 98
0.473 -1.28 0.25 127 127 98
0.473 -1.2 0.245 127 114 86
0.473 -1.2 0.25 127 114 86
0.483 -1.29 0.245 127 124 112
0.478 -1.29 0.25 127 127 112
0.483 -1.29 0.25 127 126 112
0.478 -1.2 0.25 127 120 86
0.483 -1.19 0.245 127 118 84
0.483 -1.19 0.25 127 118 84
0.493 -1.29 0.245 127 127 104
0.493 -1.29 0.25 104 72 62
0.488 -1.19 0.25 127 127 84
0.493 -1.18 0.245 127 127 127
0.493 -1.18 0.25 127 127 110
0.498 -1.29 0.25 124 70 62
0.503 -1.28 0.245 127 74 64
0.503 -1.28 0.25 124 82 64
0.503 -1.18 0.25 127 127 84
0.508 -1.28 0.25 127 82 64
0.513 -1.27 0.25 127 102 68
0.513 -1.2 0.25 88 58 46
0.508 -1.2 0.25 88 66 52
0.508 -1.19 0.25 116 72 52
0.523 -1.27 0.25 127 108 68
0.523 -1.27 0.245 127 126 88
0.523 -1.24 0.245 127 127 127
0.523 -1.23 0.245 127 127 127
0.523 -1.22 0.25 66 56 50
0.518 -1.22 0.25 66 54 44
0.518 -1.21 0.25 68 48 44
0.528 -1.27 0.25 127 126 88
0.528 -1.26 0.25 122 88 76
0.528 -1.25 0.25 102 80 76
0.528 -1.24 0.25 127 127 127
0.528 -1.23 0.25 127 127 127
0.224 -1.52 0.26 70 58 46
0.219 -1.52 0.26 70 58 62
0.219 -1.51 0.26 127 126 90
0.224 -1.5 0.26 127 127 84
0.234 -1.54 0.26 70 56 54
0.229 -1.54 0.26 70 52 46
0.229 -1.53 0.26 70 52 46
0.234 -1.5 0.255 127 126 78
0.229 -1.5 0.26 127 106 78
0.234 -1.49 0.26 127 126 78
0.244 -1.55 0.26 72 60 44
0.239 -1.55 0.26 72 50 54
0.244 -1.49 0.255 127 127 80
0.239 -1.49 0.26 127 124 84
0.244 -1.48 0.26 127 127 84
0.254 -1.55 0.26 66 48 44
0.254 -1.48 0.255 127 127 88
0.249 -1.48 0.26 127 126 80
0.254 -1.47 0.26 127 127 80
0.264 -1.55 0.26 66 48 50
0.264 -1.47 0.255 127 127 98
0.259 -1.47 0.26 127 127 98
0.264 -1.46 0.26 127 120 76
0.274 -1.55 0.26 68 54 50
0.274 -1.46 0.26 127 127 76
0.284 -1.55 0.26 76 58 60
0.284 -1.46 0.26 94 72 52
0.294 -1.56 0.26 84 62 66
0.289 -1.56 0.26 96 54 60
0.294 -1.49 0.255 102 72 56
0.294 -1.48 0.255 88 68 52
0.294 -1.47 0.26 118 88 60
0.289 -1.47 0.26 94 70 62
0.299 -1.56 0.26 54 44 20
0.304 -1.55 0.26 66 50 20
0.304 -1.5 0.255 116 80 58
0.304 -1.49 0.26 127 98 82
0.299 -1.49 0.26 106 72 56
0.299 -1.48 0.26 96 68 52
0.309 -1.55 0.26 66 52 28
0.309 -1.54 0.26 127 122 86
0.309 -1.53 0.26 127 112 86
0.309 -1.52 0.26 127 108 84
0.309 -1.51 0.26 127 106 76
0.309 -1.5 0.26 116 84 64
0.443 -1.27 0.255 127 108 100
0.438 -1.27 0.26 127 108 100
0.443 -1.27 0.26 127 108 80
0.443 -1.26 0.255 127 108 100
0.438 -1.26 0.26 127 127 98
0.438 -1.25 0.26 127 127 104
0.438 -1.24 0.26 127 127 114
0.438 -1.23 0.26 127 127 114
0.443 -1.22 0.26 126 112 80
0.453 -1.28 0.255 127 122 98
0.448 -1.28 0.26 127 126 104
0.453 -1.28 0.26 127 122 104
0.448 -1.22 0.26 126 100 68
0.453 -1.21 0.26 127 114 86
0.463 -1.28 0.255 127 127 98
0.463 -1.28 0.26 127 127 114
0.463 -1.21 0.255 127 110 80
0.463 -1.21 0.26 127 110 80
0.473 -1.29 0.255 127 127 112
0.468 -1.29 0.26 127 127 114
0.473 -1.29 0.26 127 127 106
0.468 -1.21 0.26 127 112 80
0.473 -1.2 0.26 127 110 90
0.483 -1.29 0.26 127 124 90
0.478 -1.2 0.26 127 122 90
0.483 -1.19 0.26 127 118 94
0.493 -1.29 0.26 127 127 106
0.488 -1.19 0.26 127 127 94
0.493 -1.18 0.26 127 127 106
0.503 -1.29 0.26 127 127 106
0.503 -1.29 0.255 124 82 64
0.503 -1.18 0.26 127 127 122
0.508 -1.29 0.26 127 82 82
0.513 -1.28 0.255 127 102 68
0.513 -1.28 0.26 127 82 82
0.513 -1.2 0.26 86 60 70
0.508 -1.2 0.26 86 66 58
0.508 -1.19 0.26 127 74 58
0.518 -1.28 0.26 127 110 102
0.523 -1.27 0.26 127 108 102
0.523 -1.22 0.26 64 62 64
0.518 -1.22 0.26 64 50 46
0.518 -1.21 0.26 70 50 46
0.528 -1.27 0.26 127 126 88
0.528 -1.26 0.26 124 88 78
0.528 -1.25 0.26 106 82 78
0.528 -1.24 0.26 106 82 64
0.528 -1.23 0.26 98 84 64
0.224 -1.52 0.27 70 56 42
0.219 -1.52 0.27 70 58 62
0.219 -1.51 0.27 127 127 92
0.224 -1.5 0.27 127 124 112
0.234 -1.54 0.265 70 56 54
0.229 -1.53 0.27 70 52 42
0.234 -1.53 0.27 70 56 54
0.229 -1.5 0.27 127 112 90
0.234 -1.49 0.265 127 124 84
0.229 -1.49 0.27 127 96 78
0.234 -1.48 0.27 127 116 84
0.244 -1.55 0.27 72 60 44
0.239 -1.55 0.27 72 48 54
0.239 -1.54 0.27 70 56 54
0.244 -1.48 0.265 127 127 80
0.239 -1.48 0.27 127 127 98
0.244 -1.47 0.27 127 127 114
0.254 -1.55 0.27 66 48 44
0.254 -1.47 0.27 127 127 80
0.264 -1.55 0.27 66 46 48
0.259 -1.47 0.27 127 127 88
0.264 -1.46 0.27 127 120 92
0.274 -1.55 0.27 68 50 48
0.274 -1.46 0.27 127 127 92
0.284 -1.55 0.27 76 46 44
0.284 -1.46 0.265 127 120 92
0.279 -1.46 0.27 127 122 74
0.284 -1.45 0.27 127 124 74
0.294 -1.56 0.27 78 62 66
0.289 -1.56 0.27 96 54 44
0.294 -1.47 0.27 120 88 74
0.289 -1.47 0.27 102 74 60
0.289 -1.46 0.27 96 86 76
0.299 -1.56 0.27 54 48 42
0.304 -1.55 0.27 56 40 42
0.304 -1.49 0.27 127 100 80
0.299 -1.49 0.27 127 102 70
0.299 -1.48 0.27 127 94 74
0.309 -1.55 0.27 56 46 32
0.309 -1.54 0.27 127 122 92
0.309 -1.53 0.27 127 116 92
0.309 -1.52 0.27 127 102 84
0.309 -1.51 0.27 127 108 76
0.309 -1.5 0.27 127 106 80
0.433 -1.26 0.265 127 127 106
0.428 -1.26 0.27 127 127 106
0.433 -1.26 0.27 127 106 80
0.433 -1.25 0.27 127 127 108
0.443 -1.28 0.265 127 126 104
0.438 -1.28 0.27 127 108 80
0.443 -1.28 0.27 127 126 104
0.438 -1.27 0.27 127 106 80
0.438 -1.25 0.27 127 127 108
0.438 -1.24 0.27 127 127 124
0.438 -1.23 0.27 127 127 114
0.443 -1.22 0.27 126 110 62
0.453 -1.28 0.27 127 122 104
0.448 -1.22 0.27 127 104 86
0.453 -1.21 0.27 127 114 86
0.463 -1.29 0.265 127 127 114
0.458 -1.29 0.27 127 127 114
0.463 -1.29 0.27 127 127 114
0.463 -1.21 0.27 127 110 76
0.473 -1.3 0.265 127 127 106
0.468 -1.3 0.27 127 127 127
0.473 -1.3 0.27 127 127 127
0.468 -1.21 0.27 127 126 76
0.473 -1.2 0.27 127 120 90
0.483 -1.3 0.265 127 122 98
0.483 -1.3 0.27 127 116 98
0.478 -1.2 0.27 127 122 90
0.483 -1.19 0.27 127 126 94
0.493 -1.3 0.265 127 127 116
0.493 -1.3 0.27 127 127 116
0.488 -1.19 0.27 127 127 94
0.493 -1.18 0.27 127 127 122
0.503 -1.3 0.265 127 127 116
0.503 -1.3 0.27 127 72 62
0.503 -1.18 0.27 127 127 127
0.508 -1.3 0.27 127 94 64
0.513 -1.29 0.265 127 88 82
0.513 -1.29 0.27 127 88 64
0.513 -1.2 0.27 82 58 54
0.508 -1.2 0.27 82 70 64
0.508 -1.19 0.27 127 84 64
0.518 -1.29 0.27 127 112 86
0.518 -1.28 0.27 127 112 86
0.523 -1.27 0.27 127 110 102
0.523 -1.22 0.27 64 62 58
0.518 -1.22 0.27 64 56 34
0.518 -1.21 0.27 68 50 34
0.528 -1.27 0.27 127 126 88
0.528 -1.26 0.27 110 88 78
0.528 -1.25 0.27 112 76 58
0.528 -1.24 0.27 112 76 66
0.528 -1.23 0.27 98 72 58
0.224 -1.52 0.28 70 56 42
0.219 -1.52 0.28 70 54 62
0.219 -1.51 0.28 127 127 98
0.224 -1.5 0.275 127 124 112
0.219 -1.5 0.28 127 118 82
0.224 -1.49 0.28 127 112 62
0.234 -1.53 0.28 68 56 54
0.229 -1.53 0.28 68 50 42
0.229 -1.49 0.28 127 127 62
0.234 -1.48 0.28 127 120 98
0.244 -1.55 0.28 72 42 48
0.239 -1.55 0.28 72 48 30
0.239 -1.54 0.28 68 56 54
0.239 -1.48 0.28 127 127 98
0.244 -1.47 0.28 127 127 114
0.254 -1.55 0.28 62 44 14
0.254 -1.47 0.275 127 127 88
0.249 -1.47 0.28 127 127 114
0.254 -1.46 0.28 127 127 94
0.264 -1.55 0.28 62 50 24
0.264 -1.46 0.28 127 127 88
0.274 -1.55 0.28 68 58 54
0.274 -1.46 0.275 127 127 92
0.269 -1.46 0.28 127 127 92
0.274 -1.45 0.28 127 122 78
0.284 -1.56 0.275 68 46 44
0.279 -1.56 0.28 68 44 40
0.284 -1.56 0.28 70 36 40
0.284 -1.45 0.28 90 72 60
0.294 -1.56 0.28 78 66 58
0.294 -1.47 0.28 120 88 76
0.289 -1.47 0.28 94 66 62
0.289 -1.46 0.28 106 76 60
0.304 -1.56 0.28 52 46 42
0.304 -1.56 0.275 56 40 42
0.304 -1.49 0.28 127 96 84
0.299 -1.49 0.28 104 76 58
0.299 -1.48 0.28 98 68 52
0.309 -1.56 0.28 52 46 42
0.309 -1.55 0.28 127 127 102
0.309 -1.54 0.28 127 126 92
0.309 -1.53 0.28 127 110 92
0.309 -1.52 0.28 127 104 76
0.309 -1.51 0.28 127 110 52
0.309 -1.5 0.28 127 110 84
0.433 -1.26 0.28 127 80 72
0.428 -1.26 0.28 127 80 72
0.433 -1.25 0.275 110 94 66
0.428 -1.25 0.28 127 127 122
0.433 -1.24 0.28 110 94 88
0.443 -1.29 0.275 127 118 90
0.438 -1.29 0.28 127 118 90
0.443 -1.29 0.28 127 118 90
0.438 -1.28 0.28 127 127 98
0.438 -1.27 0.28 127 98 90
0.438 -1.24 0.28 127 127 110
0.438 -1.23 0.28 127 127 112
0.443 -1.22 0.28 127 116 68
0.453 -1.3 0.275 127 127 114
0.448 -1.3 0.28 127 110 90
0.453 -1.3 0.28 127 127 114
0.453 -1.29 0.275 127 122 90
0.448 -1.22 0.28 127 116 68
0.453 -1.21 0.28 127 104 80
0.463 -1.3 0.275 127 127 114
0.463 -1.3 0.28 127 98 90
0.463 -1.21 0.28 127 110 96
0.473 -1.3 0.28 127 127 127
0.473 -1.21 0.275 127 126 76
0.473 -1.21 0.28 127 126 76
0.483 -1.31 0.275 127 127 112
0.478 -1.31 0.28 127 127 127
0.483 -1.31 0.28 127 127 112
0.478 -1.21 0.28 127 120 90
0.483 -1.2 0.275 127 122 90
0.483 -1.2 0.28 127 127 92
0.493 -1.31 0.275 127 127 116
0.493 -1.31 0.28 118 62 54
0.488 -1.2 0.28 127 126 116
0.493 -1.19 0.275 127 127 116
0.493 -1.19 0.28 127 127 116
0.498 -1.31 0.28 118 80 62
0.503 -1.3 0.28 127 80 62
0.498 -1.19 0.28 127 127 122
0.503 -1.18 0.28 127 127 122
0.513 -1.3 0.28 127 98 76
0.513 -1.3 0.275 127 98 64
0.513 -1.2 0.28 82 58 54
0.508 -1.2 0.28 82 70 64
0.508 -1.19 0.28 127 100 64
0.518 -1.3 0.28 127 98 64
0.518 -1.29 0.28 74 14 14
0.518 -1.28 0.28 127 112 86
0.523 -1.27 0.28 127 110 86
0.523 -1.22 0.28 64 66 62
0.518 -1.22 0.28 64 52 42
0.518 -1.21 0.28 68 50 42
0.528 -1.27 0.28 127 120 80
0.528 -1.26 0.28 84 72 58
0.528 -1.25 0.28 74 56 58
0.528 -1.24 0.28 74 38 30
0.528 -1.23 0.28 88 54 62
0.214 -1.5 0.285 127 126 82
0.209 -1.5 0.29 127 126 88
0.214 -1.5 0.29 76 64 62
0.214 -1.49 0.29 127 118 82
0.224 -1.52 0.29 70 50 40
0.219 -1.52 0.29 70 54 54
0.219 -1.51 0.29 76 62 54
0.224 -1.49 0.285 127 116 62
0.219 -1.49 0.29 127 116 84
0.224 -1.48 0.29 127 127 84
0.234 -1.53 0.29 68 50 40
0.229 -1.53 0.29 68 50 40
0.234 -1.48 0.285 127 120 72
0.229 -1.48 0.29 127 120 72
0.234 -1.47 0.29 127 127 72
0.244 -1.55 0.285 72 48 30
0.239 -1.54 0.29 84 42 30
0.244 -1.54 0.29 92 26 30
0.244 -1.47 0.29 127 127 104
0.254 -1.55 0.29 98 36 48
0.249 -1.55 0.29 92 42 48
0.249 -1.47 0.29 127 127 104
0.254 -1.46 0.29 127 127 94
0.264 -1.55 0.29 66 50 24
0.264 -1.46 0.285 127 126 104
0.259 -1.46 0.29 127 127 94
0.264 -1.45 0.29 127 127 104
0.274 -1.55 0.29 64 48 64
0.274 -1.45 0.29 127 127 104
0.284 -1.56 0.285 68 44 40
0.284 -1.55 0.29 68 44 40
0.284 -1.45 0.29 96 72 60
0.294 -1.56 0.29 46 40 40
0.289 -1.56 0.29 46 28 40
0.294 -1.47 0.285 94 66 48
0.294 -1.46 0.29 90 68 48
0.289 -1.46 0.29 106 76 60
0.304 -1.56 0.29 54 42 42
0.304 -1.49 0.285 106 76 58
0.304 -1.48 0.285 94 68 52
0.304 -1.47 0.29 127 96 72
0.299 -1.47 0.29 124 92 72
0.309 -1.56 0.29 54 42 42
0.309 -1.55 0.29 127 116 80
0.309 -1.54 0.29 127 102 82
0.309 -1.53 0.29 127 102 72
0.309 -1.52 0.29 127 106 86
0.309 -1.51 0.29 127 108 88
0.309 -1.5 0.29 127 116 82
0.309 -1.49 0.29 106 56 32
0.309 -1.48 0.29 78 52 44
0.423 -1.26 0.285 127 127 114
0.418 -1.26 0.29 127 127 114
0.423 -1.26 0.29 90 66 72
0.423 -1.25 0.29 127 127 114
0.433 -1.29 0.285 127 102 90
0.428 -1.29 0.29 127 100 90
0.433 -1.29 0.29 127 102 90
0.433 -1.28 0.285 127 127 102
0.428 -1.28 0.29 127 127 102
0.433 -1.27 0.285 127 98 90
0.428 -1.27 0.29 127 80 72
0.428 -1.25 0.29 127 127 110
0.433 -1.24 0.285 120 94 88
0.428 -1.24 0.29 127 127 108
0.433 -1.23 0.29 127 110 78
0.443 -1.29 0.29 127 112 90
0.438 -1.23 0.29 127 104 68
0.443 -1.22 0.29 127 104 68
0.453 -1.3 0.29 127 124 100
0.448 -1.3 0.29 127 110 90
0.453 -1.22 0.285 127 104 80
0.453 -1.22 0.29 127 104 80
0.463 -1.31 0.285 127 127 110
0.458 -1.31 0.29 127 112 100
0.463 -1.31 0.29 127 127 110
0.458 -1.22 0.29 127 122 80
0.463 -1.21 0.29 127 112 96
0.473 -1.32 0.285 127 127 110
0.468 -1.32 0.29 127 127 110
0.473 -1.32 0.29 127 127 106
0.473 -1.31 0.285 127 127 110
0.473 -1.21 0.29 127 127 96
0.483 -1.32 0.285 127 108 94
0.483 -1.32 0.29 127 104 94
0.478 -1.21 0.29 127 127 92
0.483 -1.2 0.29 127 127 92
0.488 -1.32 0.29 90 68 56
0.493 -1.31 0.29 108 66 56
0.488 -1.2 0.29 127 127 116
0.493 -1.19 0.29 127 127 116
0.503 -1.31 0.29 127 124 98
0.503 -1.31 0.285 127 80 50
0.503 -1.19 0.285 127 127 127
0.503 -1.19 0.29 127 100 82
0.508 -1.31 0.29 127 80 50
0.513 -1.3 0.29 127 98 76
0.513 -1.2 0.29 82 54 50
0.508 -1.2 0.29 82 74 82
0.518 -1.3 0.29 127 100 76
0.523 -1.29 0.29 127 114 84
0.523 -1.29 0.285 72 14 14
0.523 -1.28 0.285 70 16 12
0.523 -1.22 0.29 62 58 40
0.518 -1.22 0.29 62 50 50
0.518 -1.21 0.29 68 52 50
0.528 -1.29 0.29 127 116 84
0.528 -1.28 0.29 70 20 8
0.528 -1.27 0.29 108 66 58
0.528 -1.26 0.29 60 24 58
0.528 -1.25 0.29 52 18 34
0.528 -1.24 0.29 52 38 30
0.528 -1.23 0.29 66 22 40
0.214 -1.5 0.3 82 56 64
0.209 -1.5 0.3 76 82 64
0.214 -1.49 0.295 127 126 112
0.209 -1.49 0.3 127 114 88
0.214 -1.48 0.3 127 127 108
0.224 -1.52 0.3 78 50 40
0.219 -1.52 0.3 78 38 54
0.219 -1.51 0.3 82 62 54
0.224 -1.48 0.295 127 127 84
0.219 -1.48 0.3 127 110 94
0.224 -1.47 0.3 127 120 94
0.234 -1.53 0.3 84 36 32
0.229 -1.53 0.3 84 36 40
0.234 -1.47 0.3 127 127 88
0.244 -1.54 0.295 92 26 30
0.244 -1.53 0.3 84 42 30
0.244 -1.47 0.295 127 127 104
0.239 -1.47 0.3 127 127 92
0.244 -1.46 0.3 127 127 92
0.254 -1.55 0.295 92 42 48
0.254 -1.54 0.3 92 28 28
0.249 -1.54 0.3 92 26 30
0.254 -1.46 0.3 127 127 100
0.264 -1.55 0.3 98 38 36
0.259 -1.55 0.3 98 36 28
0.259 -1.46 0.3 127 127 100
0.264 -1.45 0.3 127 127 74
0.274 -1.55 0.3 64 36 42
0.274 -1.45 0.295 127 116 102
0.269 -1.45 0.3 127 127 74
0.274 -1.44 0.3 127 114 102
0.284 -1.55 0.3 76 44 42
0.284 -1.45 0.295 110 112 120
0.284 -1.44 0.3 92 70 66
0.294 -1.56 0.295 46 28 40
0.294 -1.55 0.3 60 40 42
0.294 -1.46 0.295 90 68 54
0.294 -1.45 0.3 118 82 60
0.289 -1.45 0.3 100 74 66
0.304 -1.56 0.295 54 42 42
0.304 -1.55 0.3 54 42 38
0.304 -1.47 0.3 127 106 46
0.299 -1.47 0.3 127 92 46
0.299 -1.46 0.3 90 68 54
0.313 -1.55 0.295 127 122 94
0.313 -1.55 0.3 54 42 34
0.313 -1.54 0.295 127 102 82
0.313 -1.53 0.295 127 102 72
0.313 -1.52 0.3 127 94 76
0.309 -1.52 0.3 127 90 72
0.309 -1.51 0.3 114 82 48
0.309 -1.5 0.3 127 120 90
0.309 -1.49 0.3 127 114 90
0.309 -1.48 0.3 127 106 88
0.318 -1.55 0.3 52 42 34
0.318 -1.54 0.3 127 104 72
0.318 -1.53 0.3 127 92 76
0.423 -1.28 0.295 127 80 72
0.418 -1.28 0.3 127 86 72
0.423 -1.28 0.3 127 86 72
0.423 -1.27 0.295 127 80 72
0.418 -1.27 0.3 127 127 112
